ply
format ascii 1.0
element vertex 1386
property float x
property float y
property float z
property uchar red
property uchar green
property uchar blue
end_header
-0.4565 -0.5305 0.4863 113 105 118
0.4327 0.7375 -0.2345 104 104 125
0.7273 -0.2934 -0.2868 117 119 145
-0.0298 -0.7166 0.3373 102 114 138
-0.7961 0.1673 0.0913 118 102 112
0.3732 0.9565 0.3443 106 138 140
-0.5143 0.0655 -0.1292 144 104 138
-0.6953 0.0667 -0.0177 129 107 111
-0.0272 0.7474 -0.1995 138 109 135
0.2163 0.4103 0.2905 128 114 148
-0.9389 0.9801 -0.1897 149 103 102
-0.5398 -0.7954 -0.2397 132 138 127
0.2515 0.2984 0.1603 147 140 109
0.5067 0.6797 -0.2295 111 127 119
-0.2836 0.4707 -0.4498 101 141 113
-0.4603 0.3485 0.0342 102 142 147
0.9061 -0.1207 -0.1121 131 122 112
-0.8767 0.9173 -0.3636 121 130 116
-0.4016 -0.6516 -0.2329 128 128 118
-0.3306 0.9630 0.0494 123 119 119
-0.7900 -0.6543 -0.2829 127 136 144
0.4647 -0.1416 -0.4605 148 149 101
0.3129 0.0583 0.4036 123 140 142
-0.0576 -0.7048 -0.3626 148 131 127
0.6321 -0.6462 0.1001 130 146 129
0.9643 -0.2189 -0.2004 131 121 105
0.2624 -0.5808 0.4991 122 125 113
0.6884 0.5005 -0.2547 105 142 146
0.7203 -0.2119 -0.0033 145 109 149
0.6131 -0.9566 -0.4105 131 136 147
0.9947 0.4921 -0.4268 110 147 125
-0.5948 -0.4819 0.3556 144 109 139
0.1246 0.1662 0.3448 106 107 110
0.2283 -0.9715 -0.3029 119 108 147
-0.0516 0.7996 0.2797 113 145 100
-0.7987 0.5332 0.0150 137 115 137
0.7761 0.9812 0.2222 142 109 148
0.4304 -0.5454 -0.3141 119 142 110
0.6904 0.7156 -0.4513 127 138 109
0.6896 0.1661 -0.4218 103 107 139
0.4602 0.3964 -0.3752 118 118 109
0.8026 -0.1108 -0.2221 140 145 149
0.9896 -0.6813 -0.4371 147 130 102
-0.2159 0.0662 0.2690 138 129 148
0.7688 0.0582 -0.0178 116 137 149
-0.9938 0.6797 -0.0698 104 107 136
-0.5288 0.0081 -0.0740 112 124 134
0.8851 0.0974 0.1711 141 140 122
-0.8326 0.5757 0.0202 127 103 140
0.9641 -0.6537 0.1960 131 107 144
0.6857 0.9620 -0.4168 119 115 145
-0.9575 0.7964 -0.0966 130 128 122
-0.4534 0.8089 0.2618 141 148 111
0.0420 -0.1024 -0.2362 103 108 107
0.6145 0.4844 -0.1562 149 147 107
0.6293 -0.9762 -0.2696 106 112 105
-0.5712 0.5773 -0.1902 138 121 104
-0.6169 -0.7568 0.3001 137 141 108
0.9826 0.8278 0.0576 103 115 149
0.0503 0.2403 -0.4760 140 140 136
-0.1637 -0.6866 -0.1020 112 106 104
-0.0058 0.3415 0.1950 106 115 127
-0.9762 0.2004 0.3660 138 132 116
-0.8408 0.3422 0.1279 135 145 101
0.7356 -0.9659 0.2846 144 119 138
-0.6047 -0.8762 0.4158 138 141 129
0.5926 -0.7076 -0.2437 132 109 143
-0.2527 0.1346 -0.4644 110 102 122
0.5981 0.9145 0.4141 119 112 124
-0.5466 0.5034 0.1508 146 135 129
-0.7159 -0.1955 -0.2978 110 112 101
-0.3620 0.6130 0.4774 100 125 113
0.5935 0.2839 -0.2601 149 109 132
-0.2168 -0.1007 0.3371 114 146 117
-0.4048 0.9881 0.2251 123 137 122
0.4996 0.3588 0.1542 121 106 115
-0.6540 0.1565 0.2364 133 144 101
0.3861 -0.4971 0.3371 130 100 118
0.5350 -0.2508 0.4168 127 127 148
-0.0762 0.7420 0.3186 102 123 116
-0.6483 -0.3635 0.2064 113 100 147
-0.2922 0.2429 -0.0836 101 133 134
0.9829 0.3126 -0.3859 117 105 107
-0.9330 -0.8809 0.2871 105 107 141
-0.0305 0.0321 0.3280 107 146 144
0.7086 -0.2474 0.1941 128 128 128
0.5952 0.6457 0.3574 111 126 128
0.6968 -0.0422 -0.1806 102 105 100
0.1548 -0.9396 -0.4959 133 103 117
0.3819 -0.1843 -0.2782 143 100 145
-0.1449 -0.3560 0.0169 148 146 149
0.5170 -0.1990 -0.4069 106 115 118
0.7221 0.2481 -0.0927 118 138 101
0.8943 -0.8082 0.4414 107 102 102
0.2036 0.4732 0.2653 114 114 146
0.1781 -0.6975 -0.1989 138 144 118
-0.2368 0.1112 -0.0953 104 138 142
0.2112 0.5899 0.3227 121 126 124
0.4925 0.9079 0.0858 143 132 122
-0.4459 -0.2493 0.2118 149 123 123
0.7915 0.7599 0.3243 133 126 136
0.7617 -0.9180 0.2405 145 110 110
0.0202 0.4269 0.3008 146 134 114
0.0482 0.0761 0.0231 101 141 115
0.1674 0.1365 -0.2387 144 140 110
0.1077 0.3268 0.3109 122 112 136
0.3790 -0.6632 0.4406 145 107 126
0.0910 0.0031 0.4892 141 141 123
0.5845 0.9432 -0.2142 117 107 101
0.0170 0.1392 0.3034 136 136 117
0.1859 0.9029 -0.2337 129 128 103
-0.8844 0.5061 -0.1519 103 135 141
-0.8634 -0.8736 0.4454 138 117 142
0.4863 0.4170 -0.2860 124 141 102
-0.9467 -0.0225 0.2518 119 126 139
0.2700 0.5065 0.1665 117 147 146
0.0340 -0.6310 0.0868 124 139 122
-0.4781 -0.9279 0.1753 113 143 100
0.0100 -0.2237 0.4718 120 148 109
-0.8321 0.0715 -0.2853 149 125 149
0.2779 -0.4784 0.0232 130 126 126
0.3726 0.4343 -0.2306 148 107 114
0.0669 -0.5323 -0.3600 118 129 130
0.2315 -0.5084 0.1005 108 143 101
-0.6202 0.5424 0.0673 149 121 137
-0.3974 0.4300 0.3279 113 106 112
-0.6955 0.2664 -0.3649 102 148 103
-0.3879 -0.7249 0.2449 124 143 143
0.7702 0.5729 0.0848 120 116 118
0.4030 0.5669 -0.4982 110 100 129
-0.5173 0.1107 0.1718 102 113 134
-0.1313 0.0416 0.0310 116 123 147
0.8525 -0.5209 -0.4884 131 143 106
-0.7731 0.0290 0.0807 132 101 106
0.1311 -0.6867 -0.1202 132 132 136
0.7466 -0.4714 -0.1749 110 137 108
0.8323 -0.2879 0.4532 103 108 130
-0.1470 0.6802 -0.4044 136 111 147
-0.5289 0.9470 0.1100 108 102 127
-0.7964 -0.4782 0.4104 102 107 147
-0.8268 0.0671 0.0046 140 107 118
0.3060 0.2808 0.2574 114 126 148
-0.5222 -0.9328 0.0631 111 118 112
-0.8447 0.1683 0.4562 139 124 148
0.2280 -0.7273 -0.3459 145 101 134
-0.1050 0.4819 -0.2543 119 105 127
0.0676 -0.9074 0.1759 108 120 149
-0.2584 -0.7741 -0.3342 129 112 135
-0.5002 0.7665 0.0220 119 116 109
-0.4591 0.7534 0.4205 130 114 111
0.4370 0.8252 0.4652 117 143 146
0.9148 -0.0554 0.0625 113 115 137
-0.2890 -0.9117 0.3606 109 100 128
-0.5886 0.4209 -0.1697 127 137 125
-0.8724 0.5350 0.1860 121 131 124
-0.8801 0.9811 0.1783 105 117 131
-0.3365 0.6986 0.1500 146 145 105
0.5338 -0.8736 -0.2386 122 110 139
-0.3860 -0.3363 -0.1431 118 140 137
0.0687 -0.8788 0.0569 135 135 116
-0.7317 0.8005 -0.3762 125 109 147
0.3616 -0.4297 -0.4414 105 133 117
0.5873 0.1430 -0.1669 102 147 107
0.8765 -0.6050 0.2561 124 107 106
-0.4113 -0.5962 -0.3417 130 139 116
-0.4457 0.2822 -0.2039 109 113 140
0.8375 -0.9296 -0.0073 126 112 136
-0.6690 0.8044 -0.1136 114 118 146
-0.5094 0.9371 -0.0245 133 119 125
0.7441 0.0802 0.2113 106 118 103
-0.5596 -0.8602 0.1667 148 113 124
0.3391 0.1665 -0.3400 124 135 141
-0.1854 -0.7202 0.1798 105 124 100
-0.4028 -0.5741 0.4409 105 120 128
0.9460 0.0874 -0.1222 102 115 112
-0.6315 -0.0886 0.1820 102 133 100
0.7495 0.8423 -0.4377 108 149 129
0.4496 0.9013 0.0423 140 125 101
0.5356 -0.2715 0.1243 127 116 147
-0.7052 0.4951 0.4984 146 140 108
-0.7637 0.7389 -0.3660 116 137 139
-0.7923 0.1027 -0.1711 125 118 131
0.5361 -0.0535 0.3378 117 142 147
0.9091 -0.8520 0.3214 109 110 106
0.7954 -0.3457 0.3323 118 121 123
-0.3710 -0.0415 -0.3894 142 148 125
-0.1613 -0.0726 0.4492 102 134 113
-0.1302 0.6019 -0.2772 133 136 110
-0.8122 -0.7272 -0.3445 142 115 111
-0.9336 -0.4552 0.2899 125 110 114
0.8920 0.7195 0.4391 139 145 143
0.4233 -0.9145 -0.2230 110 136 102
0.1539 -0.8891 -0.0732 107 149 147
0.0249 -0.9328 -0.1506 122 133 122
-0.0109 -0.5626 -0.1817 101 122 148
0.3076 0.2852 0.2089 111 122 117
-0.1401 0.1180 0.1138 100 141 107
0.8237 0.3887 0.4837 145 123 127
-0.3349 0.3402 -0.2910 115 109 141
0.7717 0.7243 -0.4592 104 144 109
-0.1341 0.4178 -0.2351 144 102 138
0.6423 0.7131 -0.4282 118 105 142
-0.8509 -0.5316 0.3983 111 102 106
0.7011 -0.0989 -0.3255 116 113 125
-0.9211 0.8717 0.3697 141 123 149
-0.6491 0.5756 0.0843 114 120 129
-0.1682 -0.9186 -0.1667 133 105 101
0.8842 -0.9080 -0.1411 148 145 119
0.8064 -0.9362 -0.4174 112 129 148
-0.8327 0.7278 -0.2536 103 147 120
0.8706 0.8240 0.2689 110 120 110
0.5850 -0.4757 0.2486 142 108 133
0.8158 -0.7281 0.3854 138 115 104
-0.2717 -0.9495 0.4314 108 127 127
-0.7308 0.9735 0.4835 114 134 107
-0.3242 -0.9341 0.2357 124 115 134
0.8202 0.8128 -0.3735 131 147 136
0.1797 -0.7528 -0.4356 135 114 116
-0.2132 -0.5264 0.4086 144 142 143
-0.0061 -0.1134 -0.1076 138 140 123
-0.3283 0.1072 -0.4107 148 101 138
0.1011 -0.6861 0.4215 127 101 112
-0.1497 0.4399 0.1048 113 121 130
-0.1007 -0.1896 0.2666 144 100 102
-0.2582 -0.5221 -0.1149 112 129 127
-0.6475 0.8705 -0.3979 145 147 117
0.9609 0.7367 0.1244 109 140 100
0.5844 0.9376 -0.4221 149 116 128
0.0256 -0.8435 0.2574 135 122 119
0.3363 0.1299 -0.1988 123 107 142
0.4668 -0.9597 -0.1149 144 138 126
-0.3331 -0.1799 -0.4471 141 133 116
-0.2344 -0.3749 -0.2743 120 137 142
0.3289 -0.2454 0.2209 143 105 102
0.3120 0.9052 0.1750 145 113 109
0.5606 -0.6526 0.4836 116 142 115
0.2674 -0.8945 0.2137 103 146 124
-0.0925 0.8208 -0.4685 131 123 146
-0.6591 0.5279 0.0388 110 124 130
-0.3500 0.8214 0.0991 148 143 122
-0.5184 0.9964 0.1696 106 123 114
0.2848 0.2306 -0.3930 114 143 136
-0.0030 0.2857 0.0001 132 118 122
0.4476 0.1380 0.4505 136 103 104
0.7078 0.3073 -0.0713 130 132 110
-0.4905 0.6635 -0.3797 140 147 118
-0.4624 -0.4123 -0.0555 106 132 145
-0.3630 0.2347 -0.1659 130 148 146
0.6025 -0.7604 0.2367 140 112 111
-0.1970 0.8220 -0.1340 115 107 111
0.7311 -0.8904 -0.3059 110 142 104
0.9235 -0.5748 0.1506 127 127 101
-0.2006 0.9986 -0.4367 123 121 144
-0.6298 0.8594 0.2573 134 115 135
0.0841 0.6550 0.4401 142 142 140
0.5059 0.1691 -0.1049 132 134 112
0.1038 0.3405 0.1666 125 139 105
-0.8604 -0.3430 -0.2710 149 105 113
-0.2350 0.5936 0.2363 126 130 146
0.0639 0.7357 -0.1563 120 146 104
0.3635 0.1602 0.4475 121 114 124
0.6652 0.9002 0.2361 146 127 114
-0.2964 -0.6263 0.2322 101 100 102
-0.3247 0.2681 -0.3230 141 102 130
-0.6562 -0.4729 -0.0710 132 147 108
-0.9913 0.8490 0.1526 144 142 126
0.8553 -0.5106 0.0761 124 129 126
0.0482 -0.7694 0.1401 146 149 112
-0.8606 0.6281 -0.3266 119 139 112
-0.9123 -0.4426 0.3608 118 118 129
-0.3641 0.4846 -0.2153 109 122 133
-0.9999 -0.3912 0.1930 127 107 137
0.5644 -0.5076 -0.0357 104 127 108
0.3646 0.8413 0.2333 123 107 116
0.8290 -0.6096 -0.4856 120 142 128
0.9978 0.7039 0.2795 104 108 112
-0.7039 -0.3461 0.3137 132 139 148
0.0314 -0.3632 0.1079 130 106 107
-0.0452 -0.1413 -0.1664 121 128 123
-0.0226 0.6594 -0.0450 125 134 114
0.4833 -0.5144 -0.0131 136 146 104
-0.7191 -0.7311 0.4037 122 118 109
0.2490 -0.2738 0.0761 127 123 133
-0.4294 0.9144 -0.4635 124 139 135
0.1446 0.7835 -0.2841 138 144 108
-0.9629 -0.4616 0.3603 105 143 123
-0.6733 -0.7502 0.1093 110 113 106
0.0230 0.2466 0.4768 141 114 118
0.8390 -0.1939 0.3662 124 110 119
-0.3503 0.5383 -0.3080 146 107 117
0.5216 -0.5866 0.2793 120 105 104
0.9865 0.6372 -0.3798 111 124 149
-0.5312 0.0172 0.1370 104 131 130
-0.2698 -0.3200 0.4007 120 107 119
0.7317 -0.0987 -0.4446 104 118 100
0.1043 -0.4733 0.1528 123 129 119
-0.5769 -0.9051 -0.0959 129 106 120
-0.8385 0.6474 0.4926 106 132 148
0.4717 0.0643 -0.1846 104 119 102
0.2505 -0.1762 -0.3634 145 127 133
0.2631 -0.5423 -0.4927 107 149 135
-0.1233 0.8765 -0.0100 146 126 105
0.8755 0.9388 -0.2525 144 122 144
-0.4951 -0.6933 -0.4406 123 123 125
-0.1755 -0.8709 -0.2088 102 126 125
0.5486 -0.2859 0.2238 117 105 108
0.8780 -0.1283 -0.0646 132 136 147
-0.9253 -0.1276 0.3321 110 110 102
0.2236 -0.0132 0.0563 112 123 136
0.1563 0.0679 -0.2619 118 117 128
0.7556 -0.6579 0.4005 121 103 129
0.5157 0.8597 0.2374 101 142 131
0.7469 -0.1727 -0.3666 120 102 102
0.3373 0.6534 -0.4784 102 100 148
-0.3519 0.4468 0.2118 149 137 144
0.5333 -0.0982 0.1730 130 117 139
0.5435 -0.1079 0.4751 137 103 102
-0.6257 -0.5254 0.4674 125 137 103
-0.9081 0.2740 0.4258 136 115 137
0.4175 -0.5608 -0.4116 105 141 117
-0.4439 -0.6069 0.3768 130 139 142
-0.2871 -0.9648 0.0702 130 119 133
0.8505 -0.7200 -0.4937 134 144 114
-0.8816 0.3638 0.2464 125 139 141
0.4565 0.0364 0.3741 142 128 131
-0.8262 0.9089 0.0236 107 149 115
-0.2107 0.9158 0.2585 104 123 147
-0.3099 -0.6985 0.1968 125 140 125
-0.6746 0.2141 -0.4536 146 120 146
-0.8457 -0.4582 0.1225 110 128 145
-0.6722 0.0153 0.2104 114 135 130
0.8948 -0.4821 0.4055 145 134 118
-0.1346 0.1602 -0.2195 113 107 128
0.2094 -0.1683 0.3635 111 136 125
0.6001 -0.8962 -0.4567 140 148 120
-0.5878 0.0395 -0.3099 132 147 126
0.8488 -0.3344 -0.0369 110 147 126
-0.7422 0.1145 0.3745 143 111 132
-0.4996 -0.5339 -0.0086 113 119 146
0.5134 -0.0914 -0.2301 121 137 101
0.0576 0.4513 0.3254 139 142 147
-0.8610 -0.4830 0.3669 143 102 102
0.2283 0.4688 0.2782 114 123 133
-0.6378 -0.3598 -0.1865 115 112 136
-0.5856 0.8107 -0.1556 125 129 109
-0.3490 -0.6763 0.3161 101 147 146
-0.1476 0.8625 0.3467 113 103 106
0.3546 0.3278 0.3615 110 131 127
-0.4359 0.0011 -0.4803 112 117 129
-0.4147 0.0682 0.4910 103 129 140
-0.0834 -0.4866 0.1503 127 147 144
-0.3878 -0.0259 -0.4381 103 122 140
0.1768 0.9516 -0.3209 113 133 126
0.8703 0.1641 0.0825 138 102 135
0.1281 -0.7072 -0.2819 133 117 126
-0.1640 0.7121 -0.1290 138 141 144
-0.8628 -0.1961 0.4264 100 146 130
-0.0590 0.3770 0.2790 102 109 123
-0.3421 -0.1574 0.3527 114 112 120
0.4928 0.0005 0.4121 149 117 128
-0.4634 0.4975 0.3203 149 115 116
-0.9326 -0.4745 -0.4284 123 118 101
0.5748 -0.4231 -0.1656 132 139 140
0.1300 0.5017 -0.1510 134 118 107
-0.3643 -0.0341 -0.3139 108 109 109
0.0814 0.9192 -0.0201 102 143 143
-0.9365 -0.3228 0.1761 112 130 115
0.6352 -0.2773 0.3811 147 146 115
0.9003 -0.2965 -0.2388 106 125 112
0.5447 -0.7033 0.0816 130 133 127
-0.7506 -0.6582 -0.2594 147 112 124
-0.7699 0.5387 0.4646 129 116 128
-0.6296 0.5684 -0.4556 145 138 123
0.1953 0.7981 -0.3574 122 132 129
-0.3170 -0.3698 0.0807 147 109 102
-0.3707 0.1424 -0.3447 130 125 100
0.6617 -0.0810 0.2743 132 124 122
0.2494 -0.4022 -0.0018 100 117 101
-0.7008 0.1915 -0.0482 112 126 112
-0.4973 -0.9916 0.4041 147 122 119
0.2462 0.8644 0.3242 102 138 130
0.5517 -0.5249 -0.4469 125 117 133
-0.2644 0.2383 -0.3218 147 119 141
-0.8170 0.0850 0.2604 139 122 133
0.4116 0.5461 -0.2245 125 136 144
0.6657 -0.2037 -0.3807 130 102 130
-0.6536 -0.4362 -0.2326 126 111 136
-0.8788 0.1445 -0.4750 143 117 113
0.9441 -0.4909 0.2510 136 143 107
-0.0264 0.1116 0.1706 134 138 142
0.2576 -0.3299 -0.1501 142 142 103
0.4218 -0.3016 0.1024 113 142 111
-0.0906 0.1549 0.2804 103 102 131
-0.6303 -0.2319 -0.2796 139 129 112
0.5584 0.5854 -0.2768 104 129 115
0.9067 -0.6899 0.0843 123 131 113
-0.5472 0.5838 0.1049 127 145 114
-0.1340 0.3980 0.3864 140 105 115
0.4078 -0.2558 -0.1401 123 105 101
0.6542 -0.4237 0.3861 134 120 123
0.8452 -0.1846 0.1944 106 124 113
-0.0896 0.6664 -0.0026 100 149 143
0.6143 0.7364 -0.2384 139 128 108
0.8691 0.4108 0.3189 140 118 117
-0.5447 0.9221 -0.4305 146 119 130
-0.5952 0.8523 0.0779 111 139 119
-0.5462 -0.9717 0.1119 121 122 114
-0.6904 -0.7303 0.1538 146 133 147
-0.5839 0.4202 0.0708 124 116 116
-0.3361 0.0011 -0.2723 112 132 116
0.7679 0.8004 0.3858 128 140 135
0.8560 0.3583 0.3584 117 117 145
-0.0564 0.0141 0.0029 118 104 102
0.1832 -0.6636 -0.1538 120 117 105
0.4693 -0.8409 -0.0677 143 130 143
-0.7861 0.1486 -0.4242 125 141 131
-0.5924 -0.1020 -0.0803 137 123 121
0.0605 0.3849 0.1569 136 103 130
0.7701 0.9637 -0.1895 129 118 122
0.9453 -0.0595 -0.4828 110 121 107
0.7766 0.9606 -0.1943 138 135 105
0.0212 -0.2621 0.0826 113 135 103
-0.4978 0.8491 0.4893 117 111 113
0.5030 -0.1977 0.4208 135 127 105
0.6159 -0.6550 -0.3116 131 125 104
-0.0358 -0.9633 0.1961 123 140 111
-0.8229 0.2678 -0.2069 102 138 148
-0.5978 -0.1446 0.0045 108 110 137
-0.0427 -0.3919 -0.0320 130 103 146
0.1274 0.1823 -0.4163 106 108 146
-0.4995 0.4949 -0.0399 134 103 127
-0.0374 -0.7395 -0.4604 123 134 143
0.6414 -0.1347 -0.0568 113 118 104
-0.7541 0.4632 -0.0749 128 146 112
0.5992 0.5081 -0.4198 126 129 117
-0.4068 0.0879 -0.1815 140 136 128
0.9816 0.4739 0.2777 135 130 112
-0.2609 -0.1734 -0.1630 116 125 148
-0.8078 0.9582 -0.3591 146 135 102
-0.5803 -0.2695 -0.4204 107 147 124
-0.2550 -0.7469 -0.4001 122 141 141
-0.0219 -0.6655 -0.3680 113 111 108
-0.1468 0.1042 0.0151 115 137 101
-0.8440 -0.3595 0.2382 115 137 105
0.3058 -0.2873 0.3642 101 127 102
-0.0727 0.3527 0.2297 118 110 149
0.9059 -0.1476 0.3901 104 121 100
0.2409 0.9189 0.0685 124 134 129
0.5963 -0.1882 -0.0657 140 125 131
-0.4388 -0.5098 -0.3577 133 149 123
0.4260 0.4775 -0.3013 147 135 119
0.7388 -0.7510 0.2647 135 149 133
0.4446 0.5887 0.2036 132 117 146
0.3477 -0.1956 0.4205 109 135 120
0.8902 0.2700 0.3041 109 139 139
0.2574 -0.3906 -0.4714 146 149 118
-0.9410 0.8854 0.3648 133 131 149
0.2796 -0.7138 -0.1147 127 130 122
0.3451 0.9190 -0.2210 126 109 122
-0.3070 0.4050 -0.0659 143 102 148
0.9040 -0.0925 0.4409 142 120 129
0.7035 -0.2892 -0.1209 114 117 131
-0.7209 -0.4778 0.2211 143 109 131
-0.7079 -0.3985 -0.3081 143 105 125
-0.8741 0.3838 -0.1483 107 119 136
-0.2495 -0.5583 0.3962 141 143 119
-0.7511 0.3229 0.0424 142 139 145
-0.5891 -0.8068 0.0295 114 123 113
-0.8113 0.9249 0.3225 141 107 108
0.4675 0.7087 -0.4563 113 128 113
0.2217 0.8660 -0.4935 110 142 148
-0.8499 0.3549 0.1647 102 147 115
-0.5456 -0.9304 -0.0244 128 123 119
-0.9571 0.3118 -0.1072 137 148 122
-0.1595 0.5347 0.4213 109 133 139
0.3700 -0.5951 0.1489 129 123 104
-0.5070 -0.9987 -0.1932 147 125 111
-0.5904 -0.7692 0.3683 130 132 110
-0.7456 -0.8507 0.0118 144 137 120
-0.3077 0.7505 -0.2250 109 129 124
-0.0256 -0.5102 -0.3476 144 144 131
-0.0734 -0.6632 -0.4520 105 137 132
-0.2767 -0.7825 0.4879 101 147 120
-0.2543 -0.0679 0.3564 127 116 107
0.6557 -0.5730 0.4059 103 100 112
0.8835 -0.8456 0.0567 146 145 125
0.8879 0.4013 -0.1642 109 111 115
-0.4726 -0.9760 -0.0393 103 138 116
0.6388 0.1057 -0.3555 123 133 135
-0.1922 0.0972 -0.1543 120 113 126
0.9614 0.1406 -0.1283 147 112 126
-0.0128 0.0491 0.0867 107 145 149
0.9591 0.0929 -0.0806 144 137 107
0.9854 -0.2636 -0.2176 146 126 126
-0.5351 0.1537 0.0749 125 127 131
0.2822 -0.3764 -0.2318 108 149 116
0.1289 -0.2832 0.2017 136 145 128
-0.5704 -0.8006 0.1527 128 146 105
-0.6955 -0.0706 -0.4665 113 104 146
-0.6895 0.3667 0.4047 109 105 132
0.0379 -0.7077 0.3224 133 104 149
-0.2198 -0.9654 0.0034 105 118 105
-0.8673 0.9601 0.3621 121 118 148
0.2278 -0.4481 -0.0390 140 127 130
0.9703 -0.8855 -0.4212 130 101 131
-0.5675 -0.5369 -0.1774 105 146 130
-0.1880 -0.1153 0.1721 134 124 145
-0.1186 -0.1364 -0.0006 116 129 112
-0.9490 -0.5860 0.3045 114 108 108
-0.5335 -0.8991 -0.2065 141 141 123
0.2491 -0.7480 0.1631 146 132 143
-0.6281 0.6796 0.1150 126 132 118
0.2758 -0.7371 -0.0882 107 112 109
-0.5163 -0.1835 0.4276 109 117 119
0.2456 -0.7531 -0.0230 115 108 127
-0.0821 -0.0633 0.1579 132 126 106
0.0285 0.2882 -0.1321 115 119 129
0.4722 0.4951 -0.0539 106 143 124
-0.1710 0.9426 0.0181 139 107 115
-0.9610 0.0437 -0.0935 101 118 107
-0.8403 -0.4982 -0.4920 112 117 146
0.3877 -0.9811 0.4727 125 127 128
-0.1885 0.8433 0.1584 144 132 149
-0.2670 0.0130 -0.4268 119 132 116
0.2442 -0.9799 0.1009 108 146 124
0.5405 -0.7796 -0.3806 136 121 143
-0.1243 -0.6981 0.3898 149 108 142
0.2130 0.2370 0.1721 133 140 136
-0.7124 -0.3790 0.4646 120 149 106
-0.9985 -0.0989 0.4127 143 122 117
0.3606 0.5499 0.1762 137 133 131
0.7714 -0.3797 -0.2998 129 145 117
-0.8295 -0.9966 -0.3654 130 101 130
0.4643 0.5972 0.1175 130 122 138
0.8818 -0.1357 -0.3914 115 114 132
-0.0519 0.6673 -0.0395 120 142 149
-0.5359 0.1002 0.3454 147 114 104
0.8094 0.7070 -0.1491 142 106 104
-0.0737 -0.6691 -0.4372 101 147 116
-0.6570 -0.0925 0.0626 101 106 145
0.4039 0.4035 -0.1328 130 111 117
-0.5842 -0.8976 -0.3659 114 108 128
-0.2537 -0.0229 -0.0782 133 100 128
-0.8731 0.7995 0.3113 117 128 120
0.2352 -0.5340 0.2260 140 146 124
0.0628 -0.0383 0.1252 136 119 109
0.1781 -0.1195 0.2344 108 149 100
0.7940 -0.3046 0.2868 121 149 108
-0.2423 -0.6453 0.1477 118 122 131
-0.2405 -0.0849 -0.2766 110 139 101
-0.7378 0.5403 0.4179 148 125 112
0.4812 -0.4645 0.4293 137 140 102
-0.5868 0.5378 -0.0537 137 137 128
0.9115 0.0852 0.1055 128 106 122
-0.9997 -0.5357 -0.0218 116 140 116
-0.5142 -0.5640 -0.2209 149 110 110
-0.6750 -0.3918 -0.2039 144 101 114
0.5510 0.7909 -0.4616 108 113 130
0.0836 0.5842 0.1763 109 105 104
0.9496 -0.6672 0.1858 130 143 119
-0.4738 0.2685 0.1271 120 111 111
0.9064 0.6691 0.2286 142 142 117
0.2724 -0.3703 -0.1390 128 111 146
0.4667 0.2635 -0.2712 132 106 133
0.9412 0.0814 0.2943 117 108 140
0.0732 -0.2165 0.4946 115 130 142
0.7086 -0.0986 -0.2401 141 148 138
0.6600 0.5395 0.2716 118 113 115
-0.2806 -0.3762 -0.4388 148 141 142
0.5215 0.7223 -0.2506 109 138 111
-0.9233 0.0113 -0.3447 123 115 101
0.3755 0.9970 -0.3718 128 137 113
-0.5762 0.1653 0.0003 137 143 121
0.8231 0.7700 0.2279 109 133 144
0.4703 0.7799 0.4342 144 115 138
-0.6780 -0.8969 -0.3596 115 140 141
-0.9642 0.4177 -0.1495 139 116 144
-0.6575 -0.2744 0.2209 113 107 132
0.4282 -0.8151 -0.4829 134 148 149
-0.1353 0.9201 -0.1597 135 113 110
0.0711 0.9214 0.1636 111 113 105
-0.6958 -0.4289 -0.2581 105 146 108
0.7735 -0.7212 -0.4549 130 122 123
-0.1168 -0.2495 -0.2286 121 113 146
-0.9573 0.9885 0.2566 139 124 135
-0.2361 -0.1367 -0.1817 115 131 135
0.7689 0.1976 -0.3335 148 145 119
0.7393 0.4169 0.4856 132 148 117
0.9999 -0.1976 0.3870 104 108 106
0.7517 -0.2258 0.4380 146 129 117
0.9689 0.1995 0.3102 135 136 139
-0.5931 0.2999 0.1357 141 136 108
-0.8775 -0.3184 -0.0995 123 145 121
0.9222 0.5376 0.3358 119 146 111
0.0156 0.1879 0.3030 115 120 110
-0.6821 -0.8306 0.0921 141 121 143
0.9732 -0.4963 -0.0798 116 135 115
-0.3927 -0.7032 -0.1887 130 140 146
-0.7320 0.1092 0.2908 132 111 108
0.5843 -0.2830 -0.2339 118 147 139
-0.3758 0.6567 -0.4389 121 108 127
0.6064 0.5167 -0.2321 128 125 105
-0.3093 -0.6870 0.0356 148 132 137
-0.0933 0.4347 0.2606 116 101 106
-0.9818 -0.2469 -0.1809 126 124 124
0.7243 -0.5210 0.1010 112 149 144
0.4778 0.4422 0.4686 144 147 104
0.8021 0.1045 -0.2940 100 123 118
0.8720 -0.7981 0.2504 128 148 119
-0.4214 -0.9809 0.2201 121 120 116
-0.5016 -0.6079 -0.3221 114 110 136
-0.5678 -0.3349 0.2047 132 105 114
0.0940 0.0623 -0.1786 131 143 143
0.2830 0.2803 -0.4365 100 144 103
-0.7383 0.2030 0.1495 119 136 104
-0.9764 0.9835 -0.0114 149 105 132
-0.7160 0.4651 0.3962 145 107 129
0.0939 0.5520 -0.0857 143 115 123
-0.4179 0.1871 -0.1618 119 127 118
0.7596 -0.6172 0.1965 113 144 103
-0.7741 0.1725 0.4464 135 101 121
-0.0902 0.6319 -0.2745 148 108 113
0.7778 -0.0034 0.3530 115 135 127
0.1575 -0.1985 -0.2355 110 121 107
-0.2936 -0.5923 0.0317 134 117 102
-0.2192 -0.1424 -0.2298 127 108 109
0.0122 0.5443 0.4982 106 133 123
0.4179 -0.8891 0.1490 141 126 128
0.4614 0.3576 -0.3007 105 107 134
0.6371 -0.5903 0.2617 123 140 135
0.6538 -0.5261 0.0052 118 109 130
-0.5791 -0.1431 -0.3012 129 143 149
-0.2713 -0.8324 -0.0008 122 138 119
-0.0837 0.2265 0.1129 147 104 142
0.3215 0.0579 0.3969 137 124 131
0.9448 -0.5515 0.4768 103 105 123
-0.5331 -0.8359 0.0344 129 115 124
-0.1102 0.6255 -0.2009 136 119 148
-0.7184 -0.4895 0.2318 147 119 129
0.0353 0.3032 0.3922 137 118 128
0.0698 -0.5661 0.4040 112 132 148
-0.9872 -0.4820 -0.0988 102 140 148
-0.2684 0.7395 -0.0144 114 111 109
-0.2736 -0.4742 0.1612 138 109 120
0.8907 0.9215 -0.2650 111 142 110
-0.3221 -0.5511 -0.3615 146 123 116
-0.0820 0.5160 -0.4729 107 128 139
-0.4252 -0.6203 0.0562 107 124 121
-0.8318 -0.6620 -0.2386 120 114 146
-0.1309 0.7947 -0.4444 137 134 100
-0.9220 -0.7948 -0.1468 146 120 130
0.0560 -0.7559 -0.3815 109 101 120
-0.2191 0.6396 -0.3162 138 108 126
0.6055 -0.9089 -0.3078 146 121 141
-0.2036 0.9183 0.0221 112 130 149
-0.8677 -0.1485 0.3987 136 131 146
0.7817 -0.9013 -0.0458 121 131 109
0.4693 0.7317 -0.4891 100 114 119
0.1778 -0.4652 0.0253 120 104 110
0.8987 0.3141 0.3259 139 144 117
0.0592 0.1760 0.4903 111 138 128
-0.5747 -0.8170 -0.0453 103 144 129
0.5727 0.5542 0.0940 149 136 110
-0.8193 0.4171 -0.3541 136 147 101
-0.8126 -0.4184 -0.2870 109 101 148
-0.0908 0.6054 -0.2465 143 131 114
-0.7922 -0.0600 0.3891 134 139 133
0.9209 0.8917 -0.1113 121 142 129
-0.2774 0.2011 0.0815 117 143 134
-0.6816 0.2496 0.2683 106 100 131
-0.4508 0.4438 0.4153 106 134 112
0.5488 -0.1547 0.3151 114 127 137
0.3574 -0.1651 0.2434 102 134 105
-0.7269 -0.2564 0.2974 102 142 104
-0.9979 0.5470 -0.2248 104 122 110
-0.9693 -0.4214 0.2982 141 127 110
0.9178 0.1007 0.2324 120 135 121
0.5393 -0.7586 -0.1272 140 146 108
0.8310 -0.4746 -0.2360 139 112 135
0.3260 -0.6190 0.2060 126 132 133
-0.2300 -0.1214 -0.1479 110 107 112
0.7992 0.4623 -0.0076 104 143 134
-0.6454 -0.7016 0.0959 100 122 114
-0.0517 0.0885 -0.0890 132 122 133
0.9697 0.7278 -0.2842 147 106 139
-0.1425 0.0090 0.2913 130 139 141
0.4715 -0.5596 0.3932 101 111 140
0.3105 -0.7627 0.4059 105 138 144
-0.7428 -0.6274 -0.1381 114 147 146
0.5623 0.0957 -0.0585 118 111 124
-0.7707 -0.8631 0.4116 123 138 107
-0.0006 0.7273 0.3937 125 131 130
0.4908 -0.6915 -0.0740 105 142 116
0.1619 0.5737 0.3895 106 101 128
0.6815 0.0392 0.3502 112 106 127
0.1993 -0.0825 0.4373 131 147 132
0.1815 -0.9757 0.1522 145 133 139
0.2812 -0.8055 -0.1513 123 113 103
-0.6262 0.4783 -0.2741 124 100 114
-0.0651 0.5592 0.3145 146 135 123
-0.3417 -0.6508 0.2905 100 100 131
0.2708 0.3519 0.1425 147 111 123
0.7220 -0.6617 -0.3065 106 110 148
0.2793 -0.1892 -0.3622 123 105 101
-0.4404 -0.9070 0.1015 135 129 138
-0.5575 -0.0796 0.3504 125 146 125
-0.8472 -0.3961 0.2420 103 148 131
0.1215 0.2409 0.4900 131 146 127
0.8490 0.1879 -0.4756 132 135 115
0.9281 0.2591 0.2908 128 129 128
0.5771 -0.4277 -0.3643 134 129 110
-0.1890 -0.8231 0.2012 136 116 131
0.2971 0.8421 -0.0099 144 106 119
0.0958 -0.8138 -0.3823 103 103 128
0.0837 -0.3320 0.3263 122 133 128
0.8573 0.5018 -0.1560 100 134 143
-0.0575 0.0845 -0.0639 126 126 125
0.3204 -0.5492 -0.4938 146 115 112
0.0569 -0.5602 -0.0323 145 132 136
-0.2590 -0.8834 0.1763 122 117 118
0.4806 -0.3177 -0.3426 137 148 107
0.0876 0.9682 -0.0240 136 123 149
0.4003 -0.7103 -0.2630 123 107 114
0.0496 0.7796 -0.2265 113 112 149
-0.1031 -0.6203 -0.3691 104 109 135
-0.1097 0.8831 0.1825 137 116 114
-0.1036 -0.0241 0.2684 145 131 103
-0.3731 0.1177 -0.3234 103 139 141
-0.7604 -0.7770 0.1426 135 114 130
0.1827 -0.7854 -0.3093 131 110 123
0.5439 -0.3161 -0.4443 141 116 116
0.1526 0.4086 -0.1869 146 104 131
0.0962 -0.3135 -0.1104 136 140 146
0.3086 -0.7592 -0.0790 143 109 114
-0.1474 0.9574 0.3003 130 117 107
-0.4192 -0.1918 -0.2991 107 118 114
0.3964 0.5071 -0.4126 124 130 104
0.5879 -0.0604 0.4839 116 118 117
-0.6095 -0.2248 -0.4259 133 110 130
-0.8985 0.8991 0.1041 112 120 130
-0.2781 -0.1957 -0.2941 128 121 141
0.9103 -0.9225 0.0789 118 111 137
-0.5262 -0.1169 -0.2175 118 139 149
0.8527 -0.1791 0.1144 142 135 113
0.2989 0.6657 -0.2556 134 136 125
0.4268 -0.3521 -0.2716 125 105 141
-0.0035 0.9587 -0.1788 106 136 138
-0.3138 -0.9542 -0.4154 119 119 119
0.3278 0.4903 0.1274 138 149 116
0.4125 -0.2148 0.0595 107 135 109
-0.7178 0.6211 -0.4639 106 125 130
-0.7353 -0.2656 0.0656 107 109 116
0.3779 -0.1130 0.3485 136 134 112
-0.6162 -0.9997 0.1675 128 142 104
0.8494 -0.4037 0.4339 133 136 130
-0.9260 0.7936 0.4681 101 140 139
0.5685 0.2759 -0.4328 120 133 117
0.5601 -0.2472 -0.1533 143 108 127
-0.1153 0.2133 0.2959 105 146 108
-0.8133 -0.8951 0.1059 136 134 147
-0.6050 0.2057 -0.2363 115 125 147
0.4240 -0.8580 0.0427 110 102 141
0.1920 0.4153 0.3521 101 120 103
-0.0584 0.4665 0.3019 118 114 108
0.9095 0.4741 0.0782 146 124 123
-0.0738 0.8977 0.2704 125 137 102
-0.1736 0.5345 0.3462 107 126 145
-0.6347 -0.2198 -0.4085 112 119 142
-0.4863 -0.8071 -0.0590 112 148 104
0.1223 0.8001 -0.3571 134 142 132
0.3382 0.6147 0.4578 108 112 122
-0.8519 -0.6034 0.4780 139 143 137
-0.7219 -0.6196 -0.0997 130 105 142
-0.4361 0.4085 -0.0889 121 116 101
0.5174 0.4626 -0.1140 135 115 136
0.7538 -0.9584 -0.0976 126 137 127
-0.5740 -0.2830 0.1185 131 111 135
-0.8489 0.4917 -0.1115 104 104 126
0.4461 0.7053 0.3970 116 109 104
-0.2243 0.3176 -0.3819 149 117 145
-0.2552 0.1636 0.3826 105 136 138
-0.4007 -0.5987 -0.2089 142 129 111
0.7140 -0.0579 -0.2837 136 124 106
0.6490 -0.0629 0.4613 105 129 129
-0.8744 -0.7325 0.0226 145 146 110
0.5403 0.9858 0.1390 111 108 116
0.7197 -0.3369 0.0747 101 104 141
-0.5282 0.8100 -0.2219 112 101 146
-0.3277 -0.0389 -0.3113 133 124 143
-0.5578 -0.4185 -0.1811 134 134 115
0.2937 -0.6810 -0.2065 124 125 106
0.4669 0.3706 -0.2679 142 126 122
-0.4160 -0.4891 0.0433 119 105 102
-0.6667 -0.1372 -0.4743 120 119 125
0.9713 -0.1798 -0.1647 110 137 134
0.7257 0.3045 -0.2096 135 118 114
0.7509 0.6086 0.0948 116 132 142
-0.8146 -0.6307 0.2443 123 105 147
0.7234 -0.0293 0.1974 124 115 135
0.2492 -0.0911 0.4146 107 109 147
-0.1588 -0.9887 -0.1648 101 134 128
-0.1152 0.8488 0.4366 118 115 100
0.3315 0.0377 0.4611 114 102 116
0.4285 -0.1155 0.1458 128 128 148
0.0140 0.5833 0.0204 125 132 135
-0.8871 0.9925 -0.3532 123 142 146
-0.4497 -0.2066 -0.0629 142 127 110
-0.7519 -0.3861 0.2303 118 101 147
0.8902 -0.2508 -0.3310 104 148 145
-0.5621 -0.8989 -0.3074 116 116 105
-0.8941 0.5390 -0.4076 125 115 117
-0.4545 -0.7882 0.4093 113 116 127
-0.7369 0.5215 0.3634 130 129 124
0.7327 0.0872 0.3061 147 108 129
0.6724 0.6897 -0.3007 110 148 113
-0.5278 0.2191 -0.0112 105 102 145
0.4353 -0.6107 -0.2361 100 101 101
0.2460 -0.3021 0.2650 140 105 143
-0.9297 -0.7308 0.4527 100 144 135
0.0616 0.2576 0.0089 114 128 109
-0.5754 0.5844 -0.4700 143 138 139
-0.3527 -0.1988 -0.1090 148 142 111
-0.9681 0.0160 0.0208 131 111 135
-0.5029 -0.7591 -0.3026 106 146 107
0.0981 0.5803 -0.1688 116 129 143
0.0558 -0.4219 0.0451 106 122 122
0.2035 -0.8929 -0.1689 103 101 119
-0.2444 0.5154 0.2354 122 131 108
-0.8559 -0.9743 -0.1592 119 110 108
0.8347 -0.7196 0.3071 101 124 119
-0.5933 -0.6914 -0.2695 134 148 120
0.6839 -0.2766 -0.1749 148 143 123
0.7551 -0.4335 -0.2271 138 138 123
0.7862 -0.7337 -0.1809 132 113 106
-0.8630 0.8083 -0.2196 124 131 136
-0.3332 -0.3594 -0.2934 126 121 127
-0.8324 -0.1305 0.4757 126 138 113
0.7144 -0.9456 0.3825 130 126 114
0.4680 0.6358 0.4997 108 146 106
-0.0581 0.5313 -0.0776 138 128 103
-0.7075 0.5489 -0.3095 149 132 119
0.9450 0.8128 -0.3038 116 140 134
0.2257 0.9233 0.0799 103 105 119
-0.8716 -0.2584 0.2411 118 139 124
-0.9720 0.6806 0.4225 130 144 121
-0.2579 -0.2817 -0.3850 146 127 139
-0.8916 0.2172 -0.3244 105 108 107
-0.3758 -0.0079 -0.3832 102 135 119
-0.0404 0.9217 -0.1965 136 106 147
-0.6004 0.8744 0.3544 109 140 126
0.4054 -0.4948 -0.0643 123 126 143
-0.6288 0.6736 0.3553 145 118 102
-0.5790 -0.2104 0.3452 133 115 103
0.7327 0.3000 0.3350 125 143 123
-0.0221 -0.1777 -0.2339 105 128 140
0.7793 -0.3062 -0.3025 107 117 119
0.0825 -0.2522 0.4616 113 128 110
0.4271 0.7786 0.2982 104 110 145
0.1664 0.8459 0.4476 113 110 129
0.8564 0.8362 0.1673 101 113 145
0.9082 0.7935 -0.3496 115 135 119
-0.6439 0.7924 0.0494 147 136 134
0.1846 -0.4615 -0.0137 103 119 131
-0.5063 0.9571 -0.3830 128 101 114
-0.1066 -0.1999 -0.0458 135 139 105
-0.8129 -0.8878 0.0933 139 134 141
-0.0054 0.4983 0.2720 121 120 120
-0.2791 0.1431 0.4909 124 103 105
-0.9045 -0.8000 -0.2049 143 100 127
-0.6888 0.8766 -0.4181 120 147 121
0.7960 -0.3996 0.3881 137 140 129
0.8059 0.9496 -0.2149 108 115 111
-0.6009 -0.2643 -0.2922 107 108 109
-0.6729 0.5874 -0.3724 128 145 100
-0.6431 -0.5698 -0.4110 111 102 145
0.5221 0.4299 -0.1235 147 143 125
0.5660 -0.2417 -0.3751 113 145 109
-0.3897 -0.1855 0.0550 138 110 117
-0.0072 0.8551 -0.0707 119 127 104
-0.8026 0.4957 0.1926 113 108 132
-0.1726 -0.1421 -0.1590 124 122 120
-0.2750 -0.2677 0.2237 110 141 130
0.1627 -0.1518 -0.3618 141 147 140
-0.3577 -0.7308 0.1798 135 133 138
0.1574 -0.0013 0.2656 117 121 142
0.4034 0.7611 -0.1743 108 107 110
-0.7321 0.2685 0.4337 128 137 146
0.8326 0.0284 -0.1335 108 127 133
-0.5878 0.1626 0.0948 137 105 133
0.4432 -0.5160 0.0531 137 143 121
0.2787 -0.3404 -0.1417 105 133 125
-0.4758 -0.5148 -0.4529 148 138 129
0.4484 0.8171 0.4827 138 101 130
-0.8160 -0.8032 0.3053 101 132 109
-0.5174 -0.2543 0.4600 144 139 142
-0.7553 -0.3036 -0.2681 117 133 126
0.3260 -0.6917 -0.3684 129 143 109
0.2444 -0.6390 0.4580 149 108 135
0.3234 -0.3058 -0.2468 126 137 134
-0.2151 0.1683 0.3524 141 148 135
-0.2329 0.0083 -0.1837 137 142 126
0.2583 -0.0476 0.1947 119 112 125
0.6965 -0.6706 0.4535 135 147 133
0.1054 -0.8707 0.3905 148 115 140
-0.3105 -0.4219 0.2131 100 106 109
0.9271 0.5194 -0.0849 136 116 130
-0.6289 0.5990 -0.0927 135 128 121
0.8021 -0.4811 -0.3709 108 118 105
0.2588 0.4070 0.0054 112 131 108
0.9607 0.5594 -0.4190 149 141 130
0.9159 -0.2134 -0.3221 102 117 116
-0.8639 -0.6692 -0.1579 117 118 147
-0.8863 -0.2011 -0.0349 145 111 102
-0.8581 -0.3479 0.3175 107 101 111
-0.3404 0.7650 -0.3145 137 145 138
-0.1873 0.7068 0.3369 137 118 140
0.7907 -0.1103 0.2104 135 117 100
-0.4859 -0.9594 -0.0002 136 113 104
-0.6232 0.8525 0.1897 144 115 126
0.8176 -0.5928 0.3253 103 144 118
0.1597 0.4613 0.2202 127 135 101
0.7650 0.8773 0.2747 125 117 110
-0.5176 -0.6034 0.3561 145 144 129
0.1013 -0.9664 -0.1552 112 108 136
-0.8107 -0.2619 -0.0055 108 116 123
0.9886 -0.4514 0.3759 100 143 139
-0.0840 -0.5895 0.3601 109 130 141
-0.8902 -0.5004 -0.1782 121 101 137
0.9209 -0.9206 0.3786 122 136 129
-0.7834 0.4443 0.2477 118 103 124
0.3734 0.0563 -0.3756 101 147 131
-0.5022 -0.5276 0.2666 108 146 140
-0.4476 -0.7658 0.3498 124 121 136
0.2809 -0.4320 -0.2242 134 146 114
-0.0445 0.7228 -0.0396 105 123 148
0.8895 -0.8495 0.0736 114 146 148
0.2525 0.5589 -0.2917 142 147 115
-0.4761 -0.6720 -0.3859 101 132 125
-0.6121 -0.2644 -0.3667 144 123 139
-0.3049 0.1595 -0.1642 144 109 108
-0.1750 -0.9153 0.2173 135 143 128
0.3833 0.5379 0.4048 143 134 138
-0.3155 -0.9987 -0.4179 101 143 145
0.4087 -0.5435 0.3376 146 106 128
0.1775 -0.2777 -0.3968 118 107 144
0.6084 0.5569 0.4112 101 111 110
0.1632 -0.6071 0.1409 126 107 145
0.2007 -0.4333 -0.2438 121 146 148
0.3087 -0.0383 -0.0501 114 123 102
0.4823 0.8691 -0.3265 101 113 136
-0.5397 -0.8742 0.4383 144 133 107
-0.0142 0.5163 -0.3655 106 136 117
0.6640 -0.4232 -0.3559 146 126 103
-0.5642 -0.8128 0.3142 141 104 119
-0.9122 -0.2949 -0.3202 103 129 118
-0.3182 0.5676 0.0123 123 123 130
0.1838 -0.9927 -0.0426 102 102 133
0.1697 -0.6634 -0.4524 132 105 111
-0.3101 -0.4873 -0.1764 124 131 104
0.6407 -0.9041 -0.3519 126 127 124
0.4434 -0.4224 -0.3732 126 125 108
0.2508 0.8650 -0.4378 145 135 124
-0.5346 -0.9771 0.4348 118 102 117
-0.4130 0.2338 0.4197 128 113 119
-0.1646 0.9838 -0.2600 134 118 147
0.6714 0.0169 0.3571 108 105 113
-0.0705 -0.9552 0.1163 121 119 131
-0.7430 0.1652 0.2243 142 113 126
-0.6112 -0.7562 0.4437 105 111 106
0.5128 -0.0214 -0.2939 108 108 135
0.9999 0.1967 0.0940 114 135 143
0.0206 0.8537 0.2844 140 109 145
-0.2349 -0.4462 0.3383 117 109 100
-0.0236 -0.9956 -0.4538 142 122 110
0.4110 -0.1828 -0.1101 118 132 126
-0.3307 0.8119 0.4449 105 133 124
0.6017 0.1913 0.1873 118 142 102
-0.6152 0.5440 -0.1148 121 144 141
-0.2054 0.9455 -0.4373 104 119 131
-0.6521 -0.0281 0.2651 138 134 114
0.5834 0.8527 -0.1278 139 141 141
0.6081 -0.4593 0.3123 115 127 136
0.5205 0.7151 0.1432 101 109 102
0.3053 0.0508 0.4646 146 103 136
-0.5485 0.3757 -0.4820 141 112 144
-0.1069 -0.3205 0.4167 146 135 143
-0.5669 -0.3816 -0.1535 139 137 102
0.5228 -0.0455 0.1828 120 124 121
0.1942 -0.9877 0.4760 123 127 129
-0.0701 -0.6138 0.1339 104 149 101
0.1862 -0.6644 0.3180 118 107 136
-0.9746 -0.9571 0.4910 106 137 103
-0.4381 0.5184 0.3134 107 101 146
0.5164 -0.3024 0.2140 140 117 142
-0.7956 -0.3730 0.0234 110 147 131
0.7258 -0.9098 -0.3863 115 123 129
0.1650 -0.8963 0.4896 140 106 142
-0.9209 -0.0824 -0.0500 130 122 134
0.2442 0.3115 0.3576 101 133 139
0.1777 -0.0169 0.2368 118 145 132
0.7759 -0.0570 0.1598 128 114 127
-0.2350 -0.5818 0.0405 141 141 145
0.1855 0.5270 -0.0849 119 149 144
0.4250 0.6111 0.1255 148 133 106
-0.4463 0.1026 -0.0013 116 102 123
0.1342 -0.7997 -0.3349 119 108 130
-0.8047 -0.1689 0.2652 107 144 127
-0.4524 0.5045 0.0573 133 101 106
0.8079 -0.2970 -0.1827 122 122 103
0.8729 -0.5855 0.3984 111 107 103
0.7954 -0.6384 -0.0677 109 149 138
-0.2401 -0.2517 -0.1155 126 113 113
-0.8530 0.5438 0.4252 133 106 143
-0.6814 -0.4355 -0.2558 109 103 136
-0.7340 -0.8462 0.2999 126 128 148
0.7446 -0.3312 -0.3604 123 140 145
-0.4020 -0.4599 -0.3803 124 110 108
0.3923 0.0491 -0.1456 149 108 125
0.6479 0.1774 0.1159 118 117 130
0.5944 -0.3687 -0.2784 136 119 111
0.1013 0.1084 0.3151 100 141 111
0.1948 -0.0404 -0.1642 142 135 118
-0.3234 -0.7947 0.2723 115 135 124
0.3163 -0.6418 -0.2391 119 130 131
0.1400 -0.9896 0.1820 101 138 100
-0.7089 0.4756 -0.1728 107 130 102
0.4618 0.0245 0.0159 107 112 122
0.8414 -0.2707 -0.4784 148 116 136
0.4069 -0.7146 0.4535 110 101 115
-0.0053 0.1489 0.4116 122 106 134
-0.5895 0.4501 -0.3559 113 141 108
0.8566 -0.7213 0.4419 110 128 138
-0.9517 -0.6411 -0.3820 135 116 143
-0.5144 -0.0124 0.2401 145 128 102
0.6113 0.7169 -0.2810 100 130 132
-0.8078 0.3676 0.1178 133 100 142
-0.5025 0.0931 -0.0861 129 144 123
-0.7862 -0.1425 0.2325 113 147 118
-0.1307 0.9683 -0.4404 147 116 125
-0.2730 -0.0734 -0.1029 137 149 119
-0.8744 -0.4114 0.3882 121 137 145
0.5100 0.2203 0.0985 131 131 146
-0.6442 0.7716 -0.2024 130 145 118
0.9017 0.0530 -0.0579 110 120 134
-0.2076 0.6800 0.1434 123 128 149
-0.0670 -0.4161 0.3624 141 123 149
0.6990 0.9230 -0.0121 134 104 142
0.2655 0.1120 0.3122 125 147 146
0.4093 0.8435 0.1182 101 105 145
-0.7290 0.6835 -0.1504 117 129 110
-0.6912 -0.1373 0.0845 142 133 144
0.7791 0.8351 0.2713 117 119 142
-0.8163 0.5793 0.3343 144 100 104
-0.7162 0.6027 -0.2398 120 109 137
0.1050 -0.6340 0.3422 102 136 146
-0.6001 0.5899 0.0226 134 104 123
0.3651 0.9673 0.2223 149 106 136
-0.3606 -0.1419 0.1401 132 149 128
0.9501 0.4420 0.2122 129 101 136
-0.9148 -0.0266 0.3274 123 135 145
0.1447 -0.5806 0.4102 134 139 133
-0.2873 0.4697 0.4602 103 110 136
0.9638 -0.5398 -0.0162 136 134 139
0.8391 0.7380 -0.1513 126 121 146
0.9503 0.5158 -0.4599 107 143 106
0.6566 0.1161 -0.0755 112 114 130
0.6535 -0.1749 0.1738 103 124 111
-0.8919 -0.5384 -0.2092 123 107 131
0.4436 -0.0946 -0.1756 135 111 118
-0.7980 -0.9389 -0.0808 124 130 107
0.2876 0.8309 0.0871 134 125 120
-0.5516 -0.6572 0.4630 144 123 133
0.3483 -0.3158 0.0835 125 109 106
-0.1056 -0.0391 -0.0843 109 110 132
0.0958 0.9213 -0.2050 135 140 131
0.1775 0.8875 -0.1701 145 119 113
-0.1289 0.5334 0.2754 106 147 111
-0.1619 0.7150 -0.1672 122 144 141
-0.6800 0.8064 0.4364 141 138 125
-0.7222 0.1807 0.4504 124 118 130
-0.0023 0.5379 -0.4875 124 132 143
-0.2708 0.5547 -0.0137 102 127 134
0.5713 -0.7263 0.1068 124 100 145
0.0365 -0.7179 0.1865 100 133 126
0.6368 -0.5196 0.0617 103 143 126
0.1365 0.6569 0.0895 132 128 108
0.4885 0.1343 0.0499 102 111 112
-0.7594 -0.5278 -0.0692 146 139 141
0.6415 -0.5624 0.2546 106 121 149
-0.6017 -0.3981 -0.1864 132 119 126
-0.2258 -0.7634 -0.2666 119 108 136
-0.1055 0.9847 -0.3567 123 111 116
0.6741 -0.7745 0.2436 126 140 121
-0.8626 -0.3696 0.0692 104 140 147
0.7720 0.9635 -0.3756 102 114 137
-0.3823 -0.5933 -0.0876 134 118 131
-0.8856 -0.3599 -0.4911 126 122 135
0.2287 0.7408 -0.0478 109 111 134
-0.7802 -0.3257 -0.1169 118 145 116
-0.4204 -0.7081 0.4501 129 118 106
-0.9592 -0.5013 0.2397 100 104 125
0.6466 -0.5110 -0.1955 105 140 136
0.1336 -0.6843 0.3748 141 100 125
-0.6202 0.1539 0.3909 148 148 147
-0.0727 0.9644 0.3174 142 143 135
-0.3099 -0.9452 0.3941 134 108 143
-0.7850 0.7251 0.2545 123 148 120
-0.5213 0.4793 -0.2419 133 145 106
-0.8027 -0.4201 -0.0318 105 142 133
-0.9820 0.7229 -0.0526 141 146 130
-0.6474 0.4583 -0.4010 113 104 130
-0.6228 0.2421 -0.3355 109 109 106
-0.6977 -0.6729 0.4436 141 103 146
-0.8826 -0.9541 -0.2852 130 105 128
-0.4238 0.0120 0.1615 117 102 129
-0.5793 -0.9342 0.3691 104 140 127
-0.8638 0.8763 0.2754 123 103 113
-0.5536 0.3260 -0.0134 136 122 109
0.8859 -0.1768 0.1273 116 128 122
-0.3695 0.3133 0.0203 110 126 143
-0.4109 0.8895 -0.2289 147 137 145
-0.9879 0.8779 0.4075 108 119 133
-0.2336 0.8377 0.4061 104 100 116
0.4491 -0.5274 0.4992 143 103 143
-0.0442 0.6770 -0.1867 145 134 125
0.8806 0.2072 0.4844 149 111 132
0.9719 0.5268 -0.1042 132 139 146
0.4967 -0.1049 -0.4190 119 124 102
-0.3483 0.9094 -0.3241 107 113 105
0.1129 -0.6450 0.1204 109 125 105
0.3254 0.3450 0.4887 137 140 134
-0.8344 0.6822 -0.1806 127 144 125
-0.2416 -0.6347 -0.2133 138 103 146
0.2295 0.5404 -0.1860 109 140 133
-0.9335 0.2952 -0.0041 103 120 104
0.6078 -0.1694 0.0982 137 125 117
-0.4682 0.3751 -0.0670 139 146 109
-0.2515 -0.4252 0.2531 142 121 117
0.7645 0.9013 -0.4080 122 141 124
0.2305 -0.6275 0.3736 145 110 119
0.2306 0.2439 -0.0978 108 132 104
-0.0201 0.9003 -0.1806 113 141 101
-0.8866 -0.0690 -0.3478 130 101 144
-0.7081 0.8524 0.0325 144 135 147
0.1213 0.6296 -0.4718 120 148 120
0.8950 -0.1698 0.3002 100 106 102
-0.5184 0.7842 0.3850 120 139 105
0.9584 0.8527 -0.4616 149 113 133
0.4384 0.3975 0.1942 131 136 124
0.8085 -0.8676 -0.1216 125 127 142
0.5343 0.2846 0.0070 132 107 132
-0.2576 0.4135 0.0324 118 138 124
0.9255 -0.9103 -0.1882 131 121 120
0.4344 -0.7910 -0.2424 147 101 122
-0.9093 -0.6465 0.2487 111 132 140
-0.7717 -0.0970 0.3664 135 125 108
0.2012 0.7726 -0.1411 121 144 148
-0.8376 -0.2223 0.1515 115 146 148
-0.5604 0.3071 0.2636 114 145 107
0.5080 0.5059 -0.1089 109 148 108
-0.9736 -0.5030 -0.4520 132 101 129
-0.5414 0.3945 -0.0195 148 122 145
0.0631 -0.8275 -0.1754 119 115 138
-0.8726 0.8555 -0.1312 121 106 123
-0.2374 0.0148 -0.2893 115 106 104
0.3544 -0.5491 -0.2087 135 115 123
-0.5187 0.4747 0.4570 144 124 117
0.5120 -0.6174 0.1254 130 130 135
0.9898 -0.4240 0.3210 116 129 136
0.4643 -0.0524 -0.1696 142 133 119
-0.6703 -0.1704 0.3361 134 125 100
0.4870 0.4894 0.3001 111 126 142
-0.8106 0.5126 -0.4202 143 147 141
-0.5725 0.9754 -0.3610 119 146 112
-0.3776 -0.0658 -0.1668 129 112 136
0.2828 -0.0720 -0.2683 116 106 121
0.8292 -0.0502 0.3547 140 111 144
0.3291 0.4204 -0.1611 107 115 144
0.7158 -0.8532 0.1915 109 139 121
-0.5069 -0.8248 -0.2832 116 111 135
0.7756 -0.7380 0.3136 101 125 139
-0.2544 -0.3505 -0.3529 118 130 148
-0.5676 -0.2505 -0.0543 116 107 102
-0.6159 -0.2563 -0.2536 114 124 111
0.7512 0.7407 0.4832 105 101 134
-0.5858 -0.8870 -0.3329 109 108 121
-0.9593 -0.1179 0.1957 113 134 147
0.5915 -0.4628 0.0563 112 124 146
-0.9962 0.1519 0.2908 140 113 145
0.1362 -0.9503 -0.4830 127 101 121
-0.2464 -0.4127 0.2298 108 125 127
-0.5745 -0.4416 0.4441 142 132 148
0.5415 0.2707 0.0918 126 131 125
-0.4427 0.4712 -0.1224 143 111 104
-0.6935 -0.6899 -0.4965 103 118 104
0.6470 0.9250 0.2819 110 139 111
0.6734 0.4368 0.4976 136 110 136
0.2949 -0.0139 0.4369 149 131 105
0.5676 -0.7462 -0.0585 129 110 101
0.4124 -0.1767 0.0972 109 139 113
0.3460 0.7079 0.0204 118 107 107
0.8131 0.4819 -0.3141 108 106 122
-0.5882 0.1337 0.1950 147 126 117
0.7860 -0.5036 0.3328 115 128 123
0.4396 -0.1436 0.3508 125 127 121
-0.9559 0.4250 0.2800 103 143 139
-0.6662 -0.2583 -0.3164 133 118 130
-0.0674 0.3191 -0.3654 129 115 122
-0.9494 -0.7235 -0.0389 130 138 132
0.7076 -0.0666 -0.2659 131 124 143
-0.4505 0.7053 0.1456 133 134 121
0.0954 -0.6072 0.2426 132 134 145
0.4018 0.6836 0.2860 140 104 121
-0.7355 -0.9216 0.1024 120 111 125
-0.1974 -0.5580 0.3244 104 102 129
-0.8029 0.0212 -0.0227 149 110 106
-0.0852 -0.8581 -0.4547 107 108 133
-0.8157 0.6880 0.2561 107 103 131
0.1672 0.1871 0.2480 125 119 109
0.2364 -0.4600 -0.2923 149 121 120
0.7858 0.1919 0.3694 125 138 107
0.7705 -0.4965 0.4727 121 137 148
0.6609 0.5086 0.0730 121 144 128
-0.0283 0.9494 0.2216 111 126 122
-0.2493 0.1551 -0.1066 113 106 139
-0.8284 0.7256 -0.0789 105 123 117
0.5797 0.8014 -0.2090 130 132 106
0.5506 0.9786 -0.4239 140 129 108
0.0500 -0.8807 0.3239 119 112 133
0.3771 0.9811 0.3685 127 112 149
-0.6549 -0.3116 0.1694 121 134 109
-0.4291 -0.9926 -0.0311 126 119 111
-0.7108 0.3123 0.4344 139 124 108
0.4333 -0.4429 0.2277 119 126 138
-0.1703 0.7490 -0.2488 113 128 137
-0.2251 0.0265 -0.3930 135 115 144
0.7897 0.0162 0.0898 116 148 144
-0.9980 0.0370 0.4349 140 107 107
0.5799 0.4431 -0.1450 138 123 103
-0.5079 0.3407 -0.2152 141 110 136
0.6821 0.5863 0.1009 119 129 113
-0.5807 -0.6788 0.4797 114 107 135
-0.1187 0.8800 -0.3342 118 146 129
0.4983 0.2243 -0.4526 121 136 103
-0.0633 -0.4811 0.3227 138 129 144
-0.3461 -0.0580 0.0200 115 101 141
-0.6847 0.0881 0.0669 107 146 112
0.2716 0.5668 0.1777 135 103 143
0.7611 0.9059 0.0338 130 124 137
-0.2052 -0.6579 0.2742 144 138 143
0.1134 -0.2107 -0.4996 115 119 147
-0.4226 -0.1758 0.1871 130 135 143
0.2998 0.8822 -0.1265 148 118 131
-0.3287 -0.5027 0.3818 147 106 144
0.9313 0.1029 0.1458 128 108 115
0.4494 -0.9941 0.3913 105 105 149
-0.2188 -0.8014 0.0816 143 120 102
0.2693 0.9431 -0.0461 138 122 147
0.2980 -0.9838 0.0793 139 140 108
-0.2744 0.4053 -0.4975 131 142 112
0.4085 -0.7811 -0.0768 116 148 116
-0.5447 0.3457 0.1342 135 110 138
0.9165 0.0674 0.3592 133 129 120
0.5184 0.7322 0.1561 137 136 125
0.9869 -0.0366 -0.1805 105 127 118
-0.8344 0.0619 0.3675 103 143 106
0.2751 0.4314 0.4668 100 145 104
0.8387 0.6276 -0.1382 145 128 121
0.7787 -0.7860 0.0243 147 148 134
-0.7795 0.7457 -0.0678 136 147 134
-0.5391 0.4523 -0.3686 106 144 135
0.1401 -0.9828 0.2429 103 146 113
0.2061 -0.6018 0.1599 121 131 145
-0.7370 -0.5742 -0.2233 106 116 125
-0.4446 0.6594 0.3338 136 117 116
0.8626 0.0434 -0.3723 116 118 120
-0.4692 -0.0524 -0.2062 142 125 143
0.8053 -0.6904 0.4139 132 103 102
0.1058 0.5004 -0.4635 115 116 106
0.7288 0.4838 -0.0517 112 111 114
-0.0540 0.7229 -0.0312 138 133 144
-0.3819 0.3267 0.4550 149 101 119
0.3270 -0.3161 -0.0753 139 118 139
-0.1516 -0.0657 -0.0129 146 126 148
-0.6821 0.0000 -0.4577 140 134 144
0.7371 -0.2056 0.2252 126 143 121
0.6422 -0.9936 0.2464 126 145 142
0.2940 0.0791 0.1432 101 149 106
-0.0505 -0.5578 0.1167 122 133 108
-0.4891 0.3081 -0.0553 134 140 100
0.1992 -0.6667 -0.3592 103 147 108
0.3226 -0.5588 0.3968 105 100 136
0.8226 -0.1227 -0.4009 143 137 126
0.7736 0.2368 -0.2616 136 132 132
0.1248 -0.2888 0.1664 130 139 119
0.7719 0.0854 0.2113 116 113 139
0.4486 -0.6708 0.1257 143 101 112
0.3923 0.1180 0.0153 109 115 118
-0.2956 0.4180 -0.2967 108 121 119
-0.1298 -0.0863 0.1527 106 100 106
-0.4995 0.2778 -0.1973 130 133 138
0.2300 0.5492 0.0440 133 144 128
-0.2807 0.1802 0.4021 149 117 122
0.7680 -0.8854 -0.1832 102 113 116
0.5489 -0.7874 0.3465 126 109 119
-0.1016 -0.9350 -0.1053 121 107 113
-0.7101 -0.4301 0.4229 130 105 101
0.7461 0.3072 0.1215 148 105 138
-0.0505 -0.4103 0.4979 119 102 123
0.6638 0.1347 0.2547 110 131 101
-0.2554 -0.3246 -0.2610 111 104 119
-0.3214 0.9098 0.1657 128 126 133
-0.2898 0.5222 -0.2989 133 143 118
-0.3798 -0.0097 0.2180 123 131 123
0.5207 -0.4136 -0.1534 132 111 142
0.8050 0.7628 -0.2001 124 117 120
-0.0173 -0.0210 0.2927 108 117 105
-0.1697 -0.3105 0.3710 109 149 126
0.3874 -0.9951 -0.0538 130 134 143
0.3618 0.7421 -0.0597 143 121 107
-0.3309 0.3745 -0.0997 127 106 106
-0.7696 -0.4922 -0.3152 115 102 134
0.5374 -0.8965 0.0211 139 111 106
-0.9255 -0.9644 -0.2540 142 113 128
-0.8916 -0.2976 -0.3625 108 128 123
0.6715 0.2682 -0.3272 147 136 109
0.8301 -0.5670 -0.4711 134 146 149
0.1345 -0.2410 -0.2202 108 142 106
-0.0805 -0.8538 -0.1185 127 138 144
0.9554 -0.1783 -0.1189 105 127 107
-0.1259 0.2159 -0.3272 137 141 107
-0.3259 -0.1071 0.1136 144 117 144
-0.0310 -0.3893 -0.0507 125 103 135
0.5870 0.8578 0.1198 124 109 100
-0.3641 -0.1621 -0.1310 108 135 108
-0.9208 0.5380 0.4029 127 140 123
0.3619 0.4659 0.2908 146 149 125
0.0332 -0.0288 -0.3715 116 126 135
0.2822 0.7334 -0.0807 141 142 100
-0.4368 0.1032 -0.1527 127 144 103
0.6625 -0.5344 0.0858 102 119 125
0.2694 0.0704 -0.4623 105 129 103
-0.4118 0.9867 -0.3489 129 128 142
0.1001 -0.0111 0.1454 126 135 132
-0.5448 0.9856 0.2645 103 145 103
0.3225 0.0640 0.4020 104 142 139
-0.2928 -0.9050 0.0678 112 119 115
0.6782 -0.4339 -0.4260 140 141 101
0.6058 0.6858 -0.3940 100 119 137
-0.5079 0.4265 -0.2316 136 133 149
-0.4635 -0.2028 -0.3922 124 133 119
0.9076 0.3809 0.4341 104 102 138
-0.5259 0.3370 -0.0082 132 120 121
0.5506 0.7304 0.2056 148 127 148
-0.7656 -0.8496 -0.1421 135 115 123
0.0493 -0.6732 0.4502 101 119 108
-0.3398 0.2069 -0.0353 114 130 133
-0.7667 0.0700 -0.1015 105 147 131
-0.6747 -0.6064 -0.3403 130 147 140
-0.2679 -0.2613 -0.1697 117 104 111
-0.5081 0.2080 -0.3745 108 114 123
-0.4511 -0.2308 -0.3156 124 134 139
0.5456 0.3481 -0.3091 106 144 116
0.5215 -0.7461 0.4274 114 143 110
-0.7649 0.6238 0.0512 144 138 113
-0.5907 0.0810 0.2894 132 119 131
0.9191 -0.6181 0.0731 134 107 115
-0.6922 -0.7749 -0.0856 128 137 139
0.6200 0.2090 0.4844 105 139 122
-0.1406 -0.6598 0.1813 137 125 121
0.5264 0.8494 0.4268 124 130 109
0.0897 0.8622 -0.2604 102 144 105
-0.0575 0.4752 -0.4619 131 120 140
0.4989 0.7754 0.3854 145 123 109
0.5944 0.6619 0.3424 144 126 102
0.3733 -0.8312 0.4408 138 103 141
0.0702 -0.1243 0.3129 111 112 112
0.8608 0.8183 0.0702 127 122 108
0.4934 -0.4276 0.0148 118 111 107
-0.7965 0.3124 -0.3854 103 125 101
-0.6955 -0.4097 -0.1899 104 117 121
-0.2240 0.7836 -0.3091 133 105 111
0.1663 0.7770 0.3882 106 104 110
0.8975 0.4546 0.0357 120 140 145
-0.7955 0.9998 0.2933 113 103 108
-0.3545 -0.0339 -0.4897 138 112 117
